ply
format ascii 1.0
element vertex 574
property float x
property float y
property float z
property uchar red
property uchar green
property uchar blue
end_header
2.04774808883666992 -0.161830008029937744 -0.00201388332061469555 255 200 100
1.80230581760406494 -0.0846579372882843018 0.0333330035209655762 255 200 100
1.70198523998260498 0.153081610798835754 0.0268926620483398438 255 200 100
2.13242673873901367 -0.299978166818618774 0.117933772504329681 255 200 100
1.77562558650970459 0.35299837589263916 -0.114578403532505035 255 200 100
2.27205777168273926 -0.145431444048881531 -0.034586634486913681 255 200 100
1.91943347454071045 0.29371333122253418 -0.0796321332454681396 255 200 100
2.05225396156311035 -0.332075148820877075 0.00392134673893451691 255 200 100
2.04966902732849121 -0.171073362231254578 0.00729501573368906975 255 200 100
2.13259267807006836 -0.330580592155456543 -0.054930664598941803 255 200 100
2.12038969993591309 -0.338699936866760254 0.0644799694418907166 255 200 100
2.24338173866271973 -0.186544150114059448 -0.105061322450637817 255 200 100
1.81751871109008789 -0.0556120015680789948 -0.0325243063271045685 255 200 100
1.98108494281768799 -0.339305132627487183 -0.165483534336090088 255 200 100
2.03168606758117676 -0.408892005681991577 0.00886824913322925568 255 200 100
2.18700838088989258 -0.0485586300492286682 -0.0547505132853984833 255 200 100
2.04006624221801758 -0.27386009693145752 -0.105841830372810364 255 200 100
1.85007834434509277 -0.146505281329154968 -0.0855171531438827515 255 200 100
2.04909992218017578 0.160900816321372986 -0.139732331037521362 255 200 100
1.98713564872741699 -0.00880095083266496658 -0.0229938887059688568 255 200 100
1.28897547721862793 1.96509349346160889 0.0502711869776248932 255 200 100
0.446027070283889771 1.78260374069213867 0.0444344468414783478 255 200 100
1.05405175685882568 1.73830676078796387 -0.117394872009754181 255 200 100
1.03589355945587158 1.38988125324249268 -0.0259578581899404526 255 200 100
0.963739514350891113 2.0718839168548584 -0.0375156775116920471 255 200 100
0.896920979022979736 1.50353837013244629 -0.0338308364152908325 255 200 100
0.803972601890563965 1.81608808040618896 -0.130017578601837158 255 200 100
1.14894676208496094 1.58032310009002686 0.217888385057449341 255 200 100
0.791431784629821777 1.804801344871521 -0.0818597599864006042 255 200 100
0.941724717617034912 1.67392158508300781 -0.0180275812745094299 255 200 100
0.695331811904907227 1.93094134330749512 -0.0560543090105056763 255 200 100
0.855855882167816162 1.48756599426269531 0.0840915292501449585 255 200 100
0.550961732864379883 1.62195837497711182 0.0949324071407318115 255 200 100
1.19806742668151855 1.66416835784912109 0.23518092930316925 255 200 100
1.0556415319442749 1.39495337009429932 0.096645258367061615 255 200 100
0.973244428634643555 1.97848141193389893 0.119776315987110138 255 200 100
1.14721596240997314 2.06169867515563965 -0.284665614366531372 255 200 100
0.883369743824005127 1.50709807872772217 0.0725642591714859009 255 200 100
0.825275123119354248 1.96860504150390625 0.0516501776874065399 255 200 100
0.715147316455841064 1.69285321235656738 0.101645812392234802 255 200 100
-0.835674822330474854 1.88068556785583496 0.0429108291864395142 255 200 100
-0.687861025333404541 1.73906564712524414 0.0297677423804998398 255 200 100
-0.617118358612060547 1.57676386833190918 -0.0352581962943077087 255 200 100
-0.757807910442352295 1.97508478164672852 -0.106943681836128235 255 200 100
-1.09870147705078125 1.8307417631149292 0.0707643628120422363 255 200 100
-0.707658648490905762 1.53753793239593506 0.0936920866370201111 255 200 100
-0.847850978374481201 1.60424816608428955 -0.0837178006768226624 255 200 100
-0.996778905391693115 1.43893194198608398 0.126708120107650757 255 200 100
-1.03513967990875244 1.82831096649169922 0.0104220444336533546 255 200 100
-0.74363178014755249 1.91026020050048828 -0.0752018988132476807 255 200 100
-0.999440968036651611 1.70991086959838867 -0.0148257175460457802 255 200 100
-1.23197853565216064 1.84075379371643066 0.00714850425720214844 255 200 100
-0.829647958278656006 1.87276411056518555 0.0977935567498207092 255 200 100
-0.766705036163330078 1.81033337116241455 -0.173838093876838684 255 200 100
-0.80908280611038208 1.44529557228088379 -0.146027177572250366 255 200 100
-0.979860007762908936 2.07652974128723145 -0.0988023355603218079 255 200 100
-1.04426753520965576 1.16884696483612061 0.0783322826027870178 255 200 100
-0.995286941528320312 1.8549799919128418 0.00841509457677602768 255 200 100
-0.951490938663482666 1.91957986354827881 0.0298779569566249847 255 200 100
-1.11613714694976807 1.74700713157653809 -0.084614090621471405 255 200 100
-2.00173854827880859 0.12034481018781662 0.26327204704284668 255 200 100
-1.88157904148101807 -0.14123786985874176 0.0161098875105381012 255 200 100
-1.99873983860015869 -0.1104755699634552 0.192678004503250122 255 200 100
-1.69459772109985352 0.0967224389314651489 -0.153145000338554382 255 200 100
-1.73875582218170166 0.0882809534668922424 0.131407260894775391 255 200 100
-1.98803293704986572 -0.0816529691219329834 0.00135899509768933058 255 200 100
-1.84070360660552979 -0.163699671626091003 -0.0713567137718200684 255 200 100
-2.32901644706726074 0.014882468618452549 -0.00774779403582215309 255 200 100
-1.94720995426177979 -0.185397937893867493 -0.0724261179566383362 255 200 100
-2.43735527992248535 -0.155448988080024719 0.110100768506526947 255 200 100
-1.91956603527069092 0.00641569821164011955 -0.117098093032836914 255 200 100
-1.88997089862823486 0.127321511507034302 -0.180073723196983337 255 200 100
-2.01412224769592285 0.105544678866863251 0.0029616369865834713 255 200 100
-1.68949377536773682 -0.0850772932171821594 0.0304723773151636124 255 200 100
-2.2531895637512207 -0.0688355714082717896 0.0282230917364358902 255 200 100
-1.84309852123260498 -0.0694647654891014099 0.165928840637207031 255 200 100
-1.97250473499298096 -0.153444290161132812 0.0171619746834039688 255 200 100
-2.16928982734680176 -0.17248612642288208 0.06340751051902771 255 200 100
-2.1346135139465332 0.134638190269470215 -0.181570440530776978 255 200 100
-2.10043597221374512 -0.0790533944964408875 -0.0484920181334018707 255 200 100
-0.759568572044372559 -1.99979746341705322 0.228217527270317078 255 200 100
-0.59354555606842041 -1.66389119625091553 -0.180313572287559509 255 200 100
-0.588110804557800293 -1.66732156276702881 -0.0751286298036575317 255 200 100
-1.14270782470703125 -1.47568738460540771 -0.143528133630752563 255 200 100
-0.878908872604370117 -1.84467387199401855 0.0245817974209785461 255 200 100
-0.498363524675369263 -1.69954907894134521 0.0690499767661094666 255 200 100
-0.948931872844696045 -2.07754659652709961 0.00272232713177800179 255 200 100
-1.37203335762023926 -1.91631686687469482 -0.067601427435874939 255 200 100
-0.946297109127044678 -1.22358119487762451 0.0341247431933879852 255 200 100
-1.26777923107147217 -1.54098522663116455 -0.160474106669425964 255 200 100
-1.4573817253112793 -1.91644489765167236 -0.0510421469807624817 255 200 100
-1.13257396221160889 -1.74881422519683838 0.101600803434848785 255 200 100
-0.95835578441619873 -1.45221447944641113 -0.029089929535984993 255 200 100
-0.832240641117095947 -1.22326159477233887 0.0672835484147071838 255 200 100
-0.908162355422973633 -1.75545680522918701 0.0629306286573410034 255 200 100
-1.18440508842468262 -1.66177892684936523 -0.0903429388999938965 255 200 100
-0.990227460861206055 -1.98661983013153076 -0.0768535137176513672 255 200 100
-0.936270654201507568 -1.849770188331604 0.00614902516826987267 255 200 100
-1.09350204467773438 -2.03759455680847168 -0.087632693350315094 255 200 100
-0.992472946643829346 -1.39088928699493408 -0.016933610662817955 255 200 100
1.0177304744720459 -1.64086461067199707 -0.0153226610273122787 255 200 100
1.06269514560699463 -1.60955977439880371 0.014103875495493412 255 200 100
1.2028801441192627 -1.92963635921478271 0.0811523571610450745 255 200 100
1.15355002880096436 -1.91092467308044434 0.111161574721336365 255 200 100
1.09747183322906494 -1.44205999374389648 0.0305234082043170929 255 200 100
0.839697599411010742 -1.74889159202575684 0.0593445561826229095 255 200 100
0.859914600849151611 -1.72735655307769775 -0.0685403496026992798 255 200 100
1.32413017749786377 -1.54235446453094482 0.0175239890813827515 255 200 100
1.15215170383453369 -1.83537530899047852 0.0350256115198135376 255 200 100
1.38768994808197021 -1.56768369674682617 0.150312021374702454 255 200 100
0.689082562923431396 -2.05170202255249023 0.102091871201992035 255 200 100
0.952707827091217041 -1.70202815532684326 0.0528187677264213562 255 200 100
0.950757324695587158 -1.89906549453735352 0.0800209194421768188 255 200 100
1.27921473979949951 -1.69757413864135742 0.0922352075576782227 255 200 100
0.544201672077178955 -2.07777857780456543 -0.00580009352415800095 255 200 100
1.04438161849975586 -1.74714100360870361 0.0400094762444496155 255 200 100
0.906287908554077148 -1.46051716804504395 -0.110244959592819214 255 200 100
0.719016075134277344 -1.71673047542572021 -0.0442568883299827576 255 200 100
0.99402618408203125 -1.74300563335418701 0.0666391476988792419 255 200 100
0.98246312141418457 -1.9901500940322876 0.0416890494525432587 255 200 100
4.28616142272949219 -0.0689932629466056824 1.81358599662780762 100 255 200
3.99777102470397949 -0.376590341329574585 2.09547781944274902 100 255 200
4.14798259735107422 0.295089542865753174 1.83872377872467041 100 255 200
3.86362051963806152 0.12781822681427002 1.93739748001098633 100 255 200
3.27417564392089844 -0.257278919219970703 1.73483920097351074 100 255 200
3.60788512229919434 -0.185501590371131897 1.86158275604248047 100 255 200
3.65253376960754395 0.144832521677017212 1.96786105632781982 100 255 200
3.96764278411865234 -0.033613741397857666 2.04519081115722656 100 255 200
3.68910694122314453 -0.357983291149139404 1.86380207538604736 100 255 200
4.18485164642333984 -0.398033469915390015 1.90428483486175537 100 255 200
4.17448282241821289 -0.241166204214096069 1.87431776523590088 100 255 200
3.72741174697875977 -0.10825059562921524 1.87223505973815918 100 255 200
4.04012489318847656 -0.261060029268264771 2.09281015396118164 100 255 200
3.91138005256652832 0.271950811147689819 2.16252827644348145 100 255 200
4.01483297348022461 -0.267335265874862671 1.87185239791870117 100 255 200
3.98175978660583496 1.79155313968658447 2.17925667762756348 100 255 200
3.26612162590026855 1.28871941566467285 2.36441850662231445 100 255 200
3.45026731491088867 1.68413162231445312 2.21940398216247559 100 255 200
4.23562288284301758 1.78702092170715332 1.77536606788635254 100 255 200
3.9850926399230957 1.22237420082092285 2.0446012020111084 100 255 200
3.63611912727355957 1.38317275047302246 2.2001032829284668 100 255 200
3.8983612060546875 1.86161315441131592 1.94563758373260498 100 255 200
3.83121228218078613 1.44902360439300537 1.63076138496398926 100 255 200
3.91307592391967773 1.69559693336486816 1.67003369331359863 100 255 200
3.70727944374084473 1.77819144725799561 2.34160590171813965 100 255 200
4.25659751892089844 1.79313755035400391 2.28573513031005859 100 255 200
4.16284465789794922 1.58449971675872803 2.05777907371520996 100 255 200
3.84215354919433594 2.46397161483764648 1.75594472885131836 100 255 200
3.74394011497497559 1.78200757503509521 1.75420975685119629 100 255 200
3.78695058822631836 1.29670798778533936 1.90782356262207031 100 255 200
3.2345430850982666 2.92813754081726074 2.01483535766601562 100 255 200
3.0614476203918457 2.35937023162841797 2.1465599536895752 100 255 200
2.92177152633666992 2.29797887802124023 1.99424195289611816 100 255 200
2.67020440101623535 2.4841458797454834 2.02536725997924805 100 255 200
2.98444581031799316 2.91597843170166016 1.92454659938812256 100 255 200
2.58730387687683105 3.31208920478820801 1.71790015697479248 100 255 200
2.66870951652526855 2.78979158401489258 1.7477257251739502 100 255 200
3.12691140174865723 2.78362202644348145 2.62573051452636719 100 255 200
2.79586410522460938 2.92600774765014648 2.10256242752075195 100 255 200
2.87358784675598145 3.39588141441345215 1.61566817760467529 100 255 200
3.33303570747375488 2.98260903358459473 2.23180794715881348 100 255 200
2.80338597297668457 2.81270027160644531 1.65528357028961182 100 255 200
2.57387351989746094 3.14884638786315918 2.18050694465637207 100 255 200
3.05893516540527344 3.22396206855773926 2.00144815444946289 100 255 200
2.88855504989624023 2.74849939346313477 1.72608542442321777 100 255 200
0.754678070545196533 3.40483379364013672 1.90784144401550293 100 255 200
1.71522760391235352 3.41808247566223145 1.89516341686248779 100 255 200
1.13125216960906982 3.33331036567687988 2.06029534339904785 100 255 200
0.989345669746398926 4.05236577987670898 2.07537579536437988 100 255 200
1.28747451305389404 4.1568756103515625 2.08965873718261719 100 255 200
1.61549472808837891 3.36778950691223145 2.16220474243164062 100 255 200
1.53803181648254395 3.70597147941589355 1.89774644374847412 100 255 200
1.91028797626495361 4.58698511123657227 2.12010407447814941 100 255 200
1.63054132461547852 3.53455972671508789 1.87548792362213135 100 255 200
1.39532792568206787 4.1186366081237793 1.78125178813934326 100 255 200
1.90276968479156494 3.60217952728271484 2.04406023025512695 100 255 200
0.897390067577362061 3.3368830680847168 1.93123817443847656 100 255 200
1.59301018714904785 3.95054435729980469 1.98841977119445801 100 255 200
1.9549705982208252 3.80212569236755371 2.04572176933288574 100 255 200
1.5657341480255127 4.23184061050415039 2.01501655578613281 100 255 200
0.224486455321311951 4.42523336410522461 1.99085628986358643 100 255 200
-0.274871021509170532 3.95814108848571777 2.13827800750732422 100 255 200
-0.0197382364422082901 4.18111896514892578 2.21043515205383301 100 255 200
-0.29483330249786377 3.9568488597869873 2.24663829803466797 100 255 200
0.320008784532546997 3.89994406700134277 1.77558135986328125 100 255 200
0.203720122575759888 3.79329156875610352 2.53887653350830078 100 255 200
-0.0705947056412696838 3.9293372631072998 2.29516863822937012 100 255 200
0.225492820143699646 4.52339935302734375 2.08479475975036621 100 255 200
0.0928414016962051392 3.82009005546569824 2.06277871131896973 100 255 200
-0.156144812703132629 4.20119714736938477 2.00151896476745605 100 255 200
0.162484109401702881 4.13296318054199219 1.87820076942443848 100 255 200
-0.256924211978912354 4.30186796188354492 1.81827366352081299 100 255 200
-0.197432860732078552 4.29363870620727539 1.94482266902923584 100 255 200
0.186421170830726624 4.29739952087402344 2.12480568885803223 100 255 200
0.301585584878921509 4.04790735244750977 2.16261911392211914 100 255 200
-1.35174298286437988 3.78382444381713867 2.02376770973205566 100 255 200
-1.62757956981658936 3.67495083808898926 1.90213024616241455 100 255 200
-1.10755753517150879 3.74606418609619141 2.07347989082336426 100 255 200
-1.63623416423797607 4.01728200912475586 1.57412433624267578 100 255 200
-1.22132027149200439 3.9348912239074707 1.70677411556243896 100 255 200
-1.62177538871765137 3.60135483741760254 2.24376940727233887 100 255 200
-1.6709824800491333 3.56576395034790039 1.93145310878753662 100 255 200
-1.45586013793945312 3.28619837760925293 1.90308833122253418 100 255 200
-1.52285969257354736 3.66793155670166016 1.72884917259216309 100 255 200
-1.99041116237640381 3.67478299140930176 2.34693670272827148 100 255 200
-1.72320234775543213 3.54769659042358398 2.17546391487121582 100 255 200
-1.65107238292694092 3.68836212158203125 2.24149131774902344 100 255 200
-2.02090311050415039 3.58507466316223145 2.08340764045715332 100 255 200
-1.28454196453094482 4.01758289337158203 1.88103401660919189 100 255 200
-1.22178912162780762 3.66810464859008789 1.90344250202178955 100 255 200
-3.21969389915466309 2.78222870826721191 1.519997239112854 100 255 200
-3.0316307544708252 3.2635190486907959 2.1272890567779541 100 255 200
-2.90077519416809082 3.39788031578063965 1.83174705505371094 100 255 200
-2.41410923004150391 2.30461859703063965 2.00351595878601074 100 255 200
-2.76451706886291504 3.10192751884460449 2.00113439559936523 100 255 200
-2.89593768119812012 3.45753359794616699 1.61480581760406494 100 255 200
-2.63852596282958984 2.72258639335632324 2.12826848030090332 100 255 200
-2.74562525749206543 2.92989993095397949 2.05903363227844238 100 255 200
-2.85083389282226562 3.28756165504455566 2.02483034133911133 100 255 200
-3.01373672485351562 2.72321343421936035 2.24163317680358887 100 255 200
-2.53901028633117676 2.211273193359375 2.11535406112670898 100 255 200
-2.22570562362670898 2.59078001976013184 1.8753046989440918 100 255 200
-3.14964795112609863 3.12640833854675293 2.1056365966796875 100 255 200
-3.24229311943054199 2.56228923797607422 2.13665485382080078 100 255 200
-3.07569432258605957 2.65260219573974609 2.27134323120117188 100 255 200
-3.99406313896179199 0.945411741733551025 1.89857566356658936 100 255 200
-3.49555253982543945 1.21632802486419678 1.87268590927124023 100 255 200
-3.61617255210876465 1.11461174488067627 1.8802109956741333 100 255 200
-3.68333578109741211 1.69125854969024658 2.12395381927490234 100 255 200
-3.60684013366699219 1.17057657241821289 1.94469606876373291 100 255 200
-3.8372039794921875 1.45273518562316895 2.18731236457824707 100 255 200
-3.49591493606567383 1.6774752140045166 1.52931427955627441 100 255 200
-3.58644914627075195 1.43779397010803223 2.21494007110595703 100 255 200
-3.31625461578369141 1.71676647663116455 1.83961963653564453 100 255 200
-3.70682024955749512 1.62047982215881348 2.34839653968811035 100 255 200
-3.58738160133361816 1.43113970756530762 1.98695123195648193 100 255 200
-3.86165618896484375 1.09492361545562744 2.09698247909545898 100 255 200
-3.25929880142211914 1.25130152702331543 2.05162668228149414 100 255 200
-3.49821710586547852 1.35731387138366699 1.91072738170623779 100 255 200
-3.72337460517883301 1.65681052207946777 2.10250639915466309 100 255 200
-3.77980279922485352 -0.27838858962059021 1.8092644214630127 100 255 200
-3.91101503372192383 0.176301777362823486 1.83773279190063477 100 255 200
-4.79905891418457031 -0.536713182926177979 2.07291817665100098 100 255 200
-4.13374948501586914 -0.238773256540298462 2.02478146553039551 100 255 200
-4.23419713973999023 -0.0400053635239601135 1.78768706321716309 100 255 200
-4.33977270126342773 -0.0328042842447757721 2.10835123062133789 100 255 200
-4.36878252029418945 -0.189235776662826538 1.85882151126861572 100 255 200
-4.22566890716552734 -0.459990233182907104 1.66063463687896729 100 255 200
-3.80489540100097656 -0.499146878719329834 2.26384997367858887 100 255 200
-3.93951869010925293 0.222165018320083618 1.82799100875854492 100 255 200
-3.99050378799438477 0.250346213579177856 1.86637258529663086 100 255 200
-3.45667839050292969 -0.184504479169845581 1.72541522979736328 100 255 200
-4.57346534729003906 -0.316864997148513794 1.96370255947113037 100 255 200
-3.76189374923706055 0.167854189872741699 2.16025662422180176 100 255 200
-4.44997119903564453 -0.364213705062866211 1.76958203315734863 100 255 200
-3.28595685958862305 -1.12050402164459229 2.32018709182739258 100 255 200
-4.2117152214050293 -1.77378940582275391 1.83084404468536377 100 255 200
-3.60722231864929199 -1.2721245288848877 1.97056841850280762 100 255 200
-3.73553633689880371 -1.57278203964233398 2.12399864196777344 100 255 200
-3.53832364082336426 -1.04193675518035889 2.24756217002868652 100 255 200
-4.14360427856445312 -1.00862133502960205 1.78801774978637695 100 255 200
-4.48875808715820312 -1.5361100435256958 1.81769669055938721 100 255 200
-3.93403720855712891 -1.64155340194702148 1.76627826690673828 100 255 200
-3.95329499244689941 -1.77311480045318604 1.95545172691345215 100 255 200
-3.63244009017944336 -1.591513991355896 1.92905116081237793 100 255 200
-3.6259760856628418 -1.426055908203125 2.36936354637145996 100 255 200
-3.43466496467590332 -1.53020346164703369 1.71666038036346436 100 255 200
-3.58986473083496094 -2.13887119293212891 2.07749748229980469 100 255 200
-4.36143827438354492 -1.42770218849182129 2.22496247291564941 100 255 200
-3.32243132591247559 -1.59641015529632568 2.08511757850646973 100 255 200
-2.70097851753234863 -2.37171602249145508 1.67163383960723877 100 255 200
-2.83782958984375 -3.13953685760498047 1.94341468811035156 100 255 200
-2.88277554512023926 -2.88345623016357422 2.15231108665466309 100 255 200
-3.0855262279510498 -2.83167552947998047 1.6451183557510376 100 255 200
-2.92968201637268066 -3.52201747894287109 2.08926892280578613 100 255 200
-2.97368788719177246 -2.83995866775512695 1.82384645938873291 100 255 200
-2.70757555961608887 -3.41164922714233398 2.25367307662963867 100 255 200
-2.84228897094726562 -2.55515909194946289 2.12184834480285645 100 255 200
-2.61885666847229004 -2.52439594268798828 2.07564496994018555 100 255 200
-2.86133408546447754 -2.46015381813049316 2.13248229026794434 100 255 200
-2.92353177070617676 -2.9921269416809082 1.82156801223754883 100 255 200
-3.26248884201049805 -3.10781097412109375 1.83900547027587891 100 255 200
-2.99679398536682129 -2.80142378807067871 2.01463794708251953 100 255 200
-2.28331494331359863 -2.73477721214294434 1.73337852954864502 100 255 200
-3.2972409725189209 -2.89011979103088379 2.21016883850097656 100 255 200
-1.84528517723083496 -4.02401161193847656 2.25391244888305664 100 255 200
-1.7143782377243042 -3.75654840469360352 2.17978954315185547 100 255 200
-1.14308607578277588 -4.28262472152709961 2.26827216148376465 100 255 200
-1.68436539173126221 -3.3066399097442627 2.05303859710693359 100 255 200
-1.71978414058685303 -3.9938042163848877 1.86039841175079346 100 255 200
-1.37981688976287842 -4.03170108795166016 1.65914297103881836 100 255 200
-2.06382155418395996 -3.48016905784606934 1.64322221279144287 100 255 200
-1.47815108299255371 -3.81645417213439941 2.08165955543518066 100 255 200
-0.585727989673614502 -3.44295930862426758 2.12858176231384277 100 255 200
-2.02804207801818848 -3.64082193374633789 2.15111255645751953 100 255 200
-1.1099008321762085 -3.10573267936706543 1.85961055755615234 100 255 200
-1.84791600704193115 -3.51732754707336426 2.45061469078063965 100 255 200
-1.34513378143310547 -3.49976658821105957 2.02050662040710449 100 255 200
-1.68976724147796631 -3.51533102989196777 2.05493950843811035 100 255 200
-1.60116279125213623 -3.62875556945800781 2.00099539756774902 100 255 200
0.576263904571533203 -4.15405797958374023 2.42708539962768555 100 255 200
0.416527032852172852 -3.94823002815246582 2.24621438980102539 100 255 200
-0.104960404336452484 -4.321746826171875 1.93939721584320068 100 255 200
-0.133331656455993652 -4.10802030563354492 1.8856428861618042 100 255 200
-0.201684832572937012 -3.97720074653625488 1.58790981769561768 100 255 200
-0.318405449390411377 -3.88035321235656738 2.23040461540222168 100 255 200
-0.265431016683578491 -4.19463253021240234 1.9537733793258667 100 255 200
-0.120227687060832977 -3.79272603988647461 1.61225986480712891 100 255 200
-0.492599457502365112 -4.72415781021118164 2.33783340454101562 100 255 200
-0.484772026538848877 -4.22995948791503906 2.16090512275695801 100 255 200
0.218370825052261353 -4.3789067268371582 2.15968608856201172 100 255 200
0.038972027599811554 -4.35352277755737305 2.04732060432434082 100 255 200
0.0840943306684494019 -3.62968945503234863 1.6055905818939209 100 255 200
-0.15226474404335022 -4.30929088592529297 2.07304883003234863 100 255 200
-0.214615315198898315 -3.67640256881713867 1.74257206916809082 100 255 200
1.7437138557434082 -3.71350502967834473 2.12409305572509766 100 255 200
1.40752053260803223 -4.13852262496948242 1.91678404808044434 100 255 200
1.21352124214172363 -3.91221070289611816 1.91861855983734131 100 255 200
1.5181877613067627 -3.68086004257202148 1.91256928443908691 100 255 200
1.32385313510894775 -3.76130819320678711 1.95768189430236816 100 255 200
1.29387736320495605 -3.43322634696960449 1.92811715602874756 100 255 200
1.77045047283172607 -3.9204099178314209 2.09206819534301758 100 255 200
1.23871064186096191 -3.58995795249938965 1.94539499282836914 100 255 200
1.88406884670257568 -3.57140135765075684 2.2587893009185791 100 255 200
1.48753690719604492 -3.44803619384765625 1.85611903667449951 100 255 200
1.1025691032409668 -3.9178321361541748 1.74518179893493652 100 255 200
1.14510512351989746 -3.37194466590881348 1.92659127712249756 100 255 200
2.02285957336425781 -3.85797762870788574 2.16991806030273438 100 255 200
1.84444153308868408 -3.64274692535400391 2.03221249580383301 100 255 200
1.62882149219512939 -3.98177242279052734 2.16376066207885742 100 255 200
2.85212564468383789 -2.92372918128967285 2.03131937980651855 100 255 200
2.86953830718994141 -2.47060513496398926 1.76935660839080811 100 255 200
3.19195842742919922 -3.03418636322021484 2.08303999900817871 100 255 200
2.36182522773742676 -3.02923369407653809 1.83418834209442139 100 255 200
3.00236296653747559 -3.00000238418579102 2.2414391040802002 100 255 200
3.47784566879272461 -2.67285370826721191 1.68124282360076904 100 255 200
2.89192628860473633 -3.37248730659484863 2.1512751579284668 100 255 200
2.51404857635498047 -2.73799562454223633 1.75765848159790039 100 255 200
3.12554407119750977 -2.92794394493103027 2.31308150291442871 100 255 200
3.00812387466430664 -3.06759023666381836 1.92124593257904053 100 255 200
2.99932527542114258 -2.69190001487731934 2.13890838623046875 100 255 200
2.84781479835510254 -2.70114922523498535 2.03476738929748535 100 255 200
3.31512665748596191 -2.01809310913085938 1.93102443218231201 100 255 200
3.3610994815826416 -2.94882512092590332 2.25928521156311035 100 255 200
2.84680628776550293 -2.73562979698181152 1.93716037273406982 100 255 200
3.60095596313476562 -1.21003282070159912 2.00839853286743164 100 255 200
3.79275608062744141 -1.79436254501342773 1.97077775001525879 100 255 200
3.54927611351013184 -1.57521867752075195 2.15665912628173828 100 255 200
3.56170892715454102 -1.33106708526611328 2.00654816627502441 100 255 200
3.99338865280151367 -1.33685576915740967 1.99969673156738281 100 255 200
3.21941757202148438 -1.39239835739135742 2.02857732772827148 100 255 200
4.51638936996459961 -1.16445326805114746 1.63867032527923584 100 255 200
3.53668546676635742 -1.45706796646118164 1.58774769306182861 100 255 200
3.60289192199707031 -0.904205262660980225 2.0098872184753418 100 255 200
3.26892709732055664 -1.85117125511169434 2.31118965148925781 100 255 200
3.54370856285095215 -1.63626778125762939 1.82846224308013916 100 255 200
3.41356110572814941 -2.28341865539550781 1.95588362216949463 100 255 200
3.86612701416015625 -1.36181640625 1.95672869682312012 100 255 200
3.45775151252746582 -1.60878074169158936 1.74357306957244873 100 255 200
3.94867610931396484 -1.97900247573852539 1.91298389434814453 100 255 200
-0.540698230266571045 1.32016324996948242 4 255 100 100
0.336849361658096313 0.386140197515487671 4 255 100 100
1.25532770156860352 0.104768767952919006 4 255 100 100
0.791045784950256348 -0.773747086524963379 4 255 100 100
1.40049099922180176 0.214226797223091125 4 255 100 100
0.352186232805252075 -0.16603495180606842 4 255 100 100
-0.270787417888641357 0.0933773815631866455 4 255 100 100
0.71973186731338501 0.671170234680175781 4 255 100 100
-0.552987277507781982 1.1687932014465332 4 255 100 100
-0.269810140132904053 0.107631862163543701 4 255 100 100
1.10424745082855225 -0.585122168064117432 4 255 100 100
0.0965898633003234863 1.34081041812896729 4 255 100 100
0.89844435453414917 -0.822306215763092041 4 255 100 100
-0.343713670969009399 1.11256158351898193 4 255 100 100
-1.10387122631072998 -1.01480245590209961 4 255 100 100
0.560583293437957764 -0.623122453689575195 4 255 100 100
0.110644213855266571 -1.37644875049591064 4 255 100 100
0.945039093494415283 -0.133112803101539612 4 255 100 100
-0.483490854501724243 -0.926862180233001709 4 255 100 100
0.990787863731384277 -0.348537147045135498 4 255 100 100
0.463668972253799438 0.0561036430299282074 4 255 100 100
-0.962409615516662598 -0.786263406276702881 4 255 100 100
-1.1592484712600708 0.430479109287261963 4 255 100 100
-0.503298759460449219 -0.771838009357452393 4 255 100 100
0.165199011564254761 0.0147261526435613632 4 255 100 100
-1.1574023962020874 0.255238056182861328 4 255 100 100
0.0630027130246162415 1.07677245140075684 4 255 100 100
-0.33737945556640625 1.40015208721160889 4 255 100 100
-0.0600798651576042175 -1.39016330242156982 4 255 100 100
0.927070021629333496 -0.781319022178649902 4 255 100 100
-1.3434145450592041 0.546797811985015869 4 255 100 100
1.11762833595275879 0.949278891086578369 4 255 100 100
0.933035969734191895 -0.62965703010559082 4 255 100 100
-0.198780626058578491 0.631942451000213623 4 255 100 100
0.159094467759132385 0.760558545589447021 4 255 100 100
-1.34830546379089355 0.645825326442718506 4 255 100 100
0.573297441005706787 -1.34241712093353271 4 255 100 100
-0.62107396125793457 -1.1580958366394043 4 255 100 100
0.683204948902130127 -0.570969820022583008 4 255 100 100
-0.289500325918197632 0.894364774227142334 4 255 100 100
-0.241716146469116211 -0.251422345638275146 4 255 100 100
-0.821132898330688477 -1.00630009174346924 4 255 100 100
1.25875091552734375 0.728164196014404297 4 255 100 100
0.322479486465454102 1.14262747764587402 4 255 100 100
0.44209858775138855 -0.555683314800262451 4 255 100 100
-0.3816356360912323 0.952390313148498535 4 255 100 100
-0.506322264671325684 0.585960984230041504 4 255 100 100
-0.376724034547805786 -1.33340203762054443 4 255 100 100
0.266018897294998169 -1.03299546241760254 4 255 100 100
0.122631311416625977 -1.21318149566650391 4 255 100 100
0.282945722341537476 -0.00577480345964431763 4 255 100 100
0.0468470975756645203 -1.16598343849182129 4 255 100 100
-0.377781808376312256 -1.39436018466949463 4 255 100 100
-0.195863664150238037 -1.32943117618560791 4 255 100 100
0.712375402450561523 0.620635807514190674 4 255 100 100
-0.460048437118530273 -1.20690560340881348 4 255 100 100
0.0597362145781517029 -1.36842107772827148 4 255 100 100
0.19227328896522522 -0.275544553995132446 4 255 100 100
0.338152468204498291 0.582599878311157227 4 255 100 100
-0.369574129581451416 -1.40274834632873535 4 255 100 100
-1.24338388442993164 -0.0017647244967520237 4 255 100 100
0.597992420196533203 -0.786025762557983398 4 255 100 100
0.625408768653869629 -0.538333773612976074 4 255 100 100
0.533933758735656738 0.401294112205505371 4 255 100 100
0.926697373390197754 -0.790542781352996826 4 255 100 100
0.00863404665142297745 -0.579761385917663574 4 255 100 100
-0.333695173263549805 -0.337540119886398315 4 255 100 100
1.21958982944488525 -0.494347244501113892 4 255 100 100
0.320058465003967285 -1.07515287399291992 4 255 100 100
-0.536662936210632324 0.750506579875946045 4 255 100 100
-0.272255450487136841 1.3101651668548584 4 255 100 100
0.279091745615005493 0.0633342340588569641 4 255 100 100
1.17661511898040771 -0.892460882663726807 4 255 100 100
-1.0928494930267334 -0.46271851658821106 4 255 100 100
-1.02463793754577637 -0.460992813110351562 4 255 100 100
0.66838449239730835 -0.424642950296401978 4 255 100 100
0.0618380941450595856 -0.692584812641143799 4 255 100 100
-0.710713207721710205 -0.303937166929244995 4 255 100 100
0.66367030143737793 0.321504414081573486 4 255 100 100
1.10736179351806641 -0.153184071183204651 4 255 100 100
0.171695604920387268 -0.119692660868167877 4 255 100 100
-0.751825392246246338 1.04228091239929199 4 255 100 100
0.418158859014511108 0.0963342562317848206 4 255 100 100
-0.219359904527664185 -1.21329760551452637 4 255 100 100
-0.539573311805725098 -1.3559565544128418 4 255 100 100
1.0036766529083252 0.463338613510131836 4 255 100 100
0.540293991565704346 -0.424022704362869263 4 255 100 100
0.201662048697471619 1.37240982055664062 4 255 100 100
-1.0234450101852417 -0.935074806213378906 4 255 100 100
-0.7742270827293396 1.14366412162780762 4 255 100 100
-0.875145554542541504 -0.705836772918701172 4 255 100 100
-0.311440140008926392 0.337110817432403564 4 255 100 100
0.0528782829642295837 -0.577593505382537842 4 255 100 100
1.45210897922515869 0.356699258089065552 4 255 100 100
0.587523400783538818 -0.423807024955749512 4 255 100 100
1.2201240062713623 0.566090106964111328 4 255 100 100
0.385710597038269043 0.564439713954925537 4 255 100 100
-0.179705992341041565 0.601225852966308594 4 255 100 100
0.403509169816970825 -1.25149047374725342 4 255 100 100
-0.0284411832690238953 -1.37323868274688721 4 255 100 100
-0.957122862339019775 -0.208860635757446289 4 255 100 100
0.0799318030476570129 1.10094833374023438 4 255 100 100
-1.42436206340789795 -0.210669323801994324 4 255 100 100
0.833644211292266846 1.03379142284393311 4 255 100 100
-0.283331125974655151 0.179236307740211487 4 255 100 100
1.3070518970489502 0.139877974987030029 4 255 100 100
0.798014700412750244 0.0224790889769792557 4 255 100 100
0.108672916889190674 0.0139806270599365234 4 255 100 100
0.423637241125106812 0.781898379325866699 4 255 100 100
-0.0155524192377924919 -1.2671515941619873 4 255 100 100
0.190131381154060364 0.545337319374084473 4 255 100 100
-1.23442947864532471 -0.718099117279052734 4 255 100 100
1.46497476100921631 -0.254409611225128174 4 255 100 100
-0.995593070983886719 -0.951501190662384033 4 255 100 100
0.600622951984405518 -1.35056483745574951 4 255 100 100
-1.06080865859985352 0.226193755865097046 4 255 100 100
-0.378674596548080444 0.239901274442672729 4 255 100 100
0.216289415955543518 -0.502525627613067627 4 255 100 100
-0.660935401916503906 1.28667557239532471 4 255 100 100
-0.788046061992645264 -0.391888320446014404 4 255 100 100
0.232468932867050171 0.401790380477905273 5 200 100 255
-0.232316076755523682 0.509040236473083496 5 200 100 255
-0.0481999143958091736 0.81707155704498291 5 200 100 255
0.715542078018188477 -0.15784919261932373 5 200 100 255
0.0106529016047716141 0.92111361026763916 5 200 100 255
-0.72754359245300293 -0.190911054611206055 5 200 100 255
-0.163824483752250671 0.0640346035361289978 5 200 100 255
-0.0542659051716327667 -0.751923620700836182 5 200 100 255
-0.92830657958984375 0.174345850944519043 5 200 100 255
-0.108318522572517395 0.906069040298461914 5 200 100 255
-0.483708620071411133 -0.75218963623046875 5 200 100 255
-0.637574076652526855 0.284804224967956543 5 200 100 255
-0.379814714193344116 0.372233748435974121 5 200 100 255
-0.845247387886047363 0.0118057029321789742 5 200 100 255
0.616297543048858643 -0.427217602729797363 5 200 100 255
0.781505167484283447 0.0397969186305999756 5 200 100 255
-0.150345787405967712 0.0808893665671348572 5 200 100 255
0.855530142784118652 0.367663919925689697 5 200 100 255
-0.472655504941940308 -0.567405879497528076 5 200 100 255
-0.842794656753540039 -0.381379812955856323 5 200 100 255
-0.11597096174955368 -0.382452994585037231 5 200 100 255
-0.76699221134185791 0.213318586349487305 5 200 100 255
0.423953592777252197 0.506742715835571289 5 200 100 255
0.0550057217478752136 0.942413866519927979 5 200 100 255
-0.83394390344619751 0.395660400390625 5 200 100 255
0.451923012733459473 0.021272880956530571 5 200 100 255
0.444766730070114136 0.637571990489959717 5 200 100 255
0.853133201599121094 0.12388591468334198 5 200 100 255
-0.46301606297492981 -0.0978407412767410278 5 200 100 255
-0.668930649757385254 0.6641845703125 5 200 100 255
0.755839884281158447 -0.449849784374237061 5 200 100 255
-0.530871093273162842 0.606227695941925049 5 200 100 255
0.653993606567382812 -0.211121097207069397 5 200 100 255
-0.170310214161872864 0.460063457489013672 5 200 100 255
-0.267869263887405396 -0.771591603755950928 5 200 100 255
0.0917262360453605652 0.784378707408905029 5 200 100 255
-0.605064094066619873 0.0124351764097809792 5 200 100 255
0.356251269578933716 -0.651601791381835938 5 200 100 255
0.192180559039115906 -0.505158305168151855 5 200 100 255
-0.749820411205291748 -0.450513631105422974 5 200 100 255
-0.724595904350280762 -0.570236027240753174 5 200 100 255
-0.293954908847808838 0.865211427211761475 5 200 100 255
-0.411254853010177612 0.031842648983001709 5 200 100 255
-0.0723318085074424744 -0.376274585723876953 5 200 100 255
0.559715330600738525 -0.527996242046356201 5 200 100 255
-0.143244564533233643 -0.762674391269683838 5 200 100 255
0.121124953031539917 -0.832467734813690186 5 200 100 255
-0.775147199630737305 0.228218987584114075 5 200 100 255
0.816154241561889648 -0.201346918940544128 5 200 100 255
-0.319507241249084473 -0.469202727079391479 5 200 100 255
-0.671359121799468994 -0.65297400951385498 5 200 100 255
-0.157000884413719177 0.311964303255081177 5 200 100 255
0.150639921426773071 0.605773031711578369 5 200 100 255
0.492496252059936523 -0.334776490926742554 5 200 100 255
-0.10763879120349884 0.110574260354042053 5 200 100 255
0.14752843976020813 0.5933418869972229 5 200 100 255
-0.243101432919502258 0.263784527778625488 5 200 100 255
0.564010322093963623 -0.80878150463104248 5 200 100 255
-0.699226319789886475 -0.307996004819869995 5 200 100 255
-0.909032166004180908 -0.190126761794090271 5 200 100 255
-0.747830390930175781 0.00385797815397381783 5 200 100 255
0.547581136226654053 0.768443644046783447 5 200 100 255
-0.707006096839904785 -0.180218353867530823 5 200 100 255
-0.751082301139831543 -0.290120542049407959 5 200 100 255
-0.492498546838760376 0.370335966348648071 5 200 100 255
0.715827763080596924 -0.279730111360549927 5 200 100 255
0.828774154186248779 0.167029052972793579 5 200 100 255
-0.717254459857940674 -0.393867731094360352 5 200 100 255
0.707653582096099854 -0.566162765026092529 5 200 100 255
-0.107739672064781189 0.709645926952362061 5 200 100 255
0.538725495338439941 0.689931094646453857 5 200 100 255
-0.373356431722640991 0.399185389280319214 5 200 100 255
0.85713958740234375 0.492611289024353027 5 200 100 255
0.335616052150726318 -0.776602745056152344 5 200 100 255
-0.115482471883296967 -0.900270998477935791 5 200 100 255
-0.0448095276951789856 0.489227384328842163 5 200 100 255
-0.0353429205715656281 0.643848836421966553 5 200 100 255
0.52247321605682373 0.346835017204284668 5 200 100 255
-0.0265177246183156967 -0.849025964736938477 5 200 100 255
-0.793160617351531982 0.4662189781665802 5 200 100 255
-0.520835518836975098 -0.402383983135223389 5 200 100 255
0.115375109016895294 -0.834943652153015137 5 200 100 255
-0.092260412871837616 -0.769616305828094482 5 200 100 255
-0.217567816376686096 -0.798889875411987305 5 200 100 255
-2.25 0 6 255 255 255
-1.75 0 6 255 255 255
-1.25 0 6 255 255 255
-0.75 0 6 255 255 255
-0.25 0 6 255 255 255
0.25 0 6 255 255 255
0.75 0 6 255 255 255
1.25 0 6 255 255 255
1.75 0 6 255 255 255
2.25 0 6 255 255 255
